-7.82e+001 -1.08e+001  2.23e+002 
-6.69e+001 -3.09e+001  2.23e+002 
-4.32e+001 -5.11e+001  2.21e+002 
-1.76e+001 -5.80e+001  2.23e+002 
 8.12e+000 -4.05e+001  2.25e+002 
 3.52e+001 -2.30e+001  2.28e+002 
 4.76e+001 -7.12e+000  2.27e+002 
 3.52e+001  2.16e+001  2.20e+002 
 9.55e+000  2.70e+001  2.12e+002 
-1.63e+001  2.87e+001  2.07e+002 
-4.12e+001  2.38e+001  2.12e+002 
-6.63e+001  1.73e+001  2.17e+002 
-9.05e+001  8.51e+000  2.03e+002 
-1.75e+001 -5.05e+001  1.98e+002 
 6.06e+001  7.73e+000  2.05e+002 
 3.52e+001  4.45e+001  1.76e+002 
-1.56e+001  3.63e+001  1.76e+002 
-6.55e+001  4.22e+001  1.76e+002 
-1.79e+002  1.13e+001  1.78e+002 
-1.56e+002  1.66e+001  1.79e+002 
-1.35e+002  1.83e+001  1.83e+002 
-1.13e+002  2.33e+001  1.86e+002 
-9.05e+001 -1.03e+001  1.80e+002 
-6.68e+001 -3.00e+001  1.80e+002 
-4.24e+001 -4.38e+001  1.80e+002 
-1.72e+001 -5.17e+001  1.83e+002 
 8.40e+000 -3.44e+001  1.84e+002 
 3.52e+001 -1.88e+001  1.85e+002 
 6.17e+001 -1.05e+001  1.86e+002 
 8.48e+001  9.53e+000  1.86e+002 
 1.10e+002  8.44e+000  1.84e+002 
 1.37e+002  1.06e+001  1.78e+002 
 1.64e+002  6.96e+000  1.77e+002 
 5.96e+001  5.35e+001  1.71e+002 
 1.02e+001  5.79e+001  1.65e+002 
-4.07e+001  5.35e+001  1.65e+002 
-9.08e+001  5.47e+001  1.71e+002 
-2.11e+002  6.74e-001  1.55e+002 
-1.32e+002 -3.41e+001  1.55e+002 
-1.10e+002 -3.71e+001  1.55e+002 
-8.84e+001 -3.97e+001  1.54e+002 
-6.59e+001 -4.95e+001  1.51e+002 
-4.22e+001 -5.35e+001  1.50e+002 
-1.68e+001 -6.28e+001  1.56e+002 
 8.22e+000 -5.55e+001  1.55e+002 
 3.56e+001 -3.35e+001  1.54e+002 
 6.17e+001 -4.46e+001  1.54e+002 
 8.73e+001 -4.98e+001  1.54e+002 
 1.08e+002 -5.55e+001  1.54e+002 
 1.32e+002 -4.49e+001  1.58e+002 
 2.00e+002 -5.73e+000  1.54e+002 
 1.44e+002  7.02e+001  1.54e+002 
 8.45e+001  5.94e+001  1.54e+002 
 3.56e+001  7.48e+001  1.54e+002 
-1.52e+001  6.51e+001  1.54e+002 
-6.62e+001  6.61e+001  1.54e+002 
-1.15e+002  6.84e+001  1.55e+002 
-1.58e+002  5.66e+001  1.56e+002 
-1.99e+002 -3.82e+001  1.41e+002 
-1.54e+002 -2.28e+001  1.58e+002 
-1.10e+002 -4.98e+001  1.32e+002 
-6.54e+001 -7.16e+001  1.30e+002 
-4.18e+001 -7.61e+001  1.29e+002 
-1.70e+001 -7.44e+001  1.31e+002 
 9.08e+000 -7.99e+001  1.31e+002 
 3.61e+001 -7.02e+001  1.31e+002 
 6.22e+001 -6.37e+001  1.32e+002 
 8.67e+001 -6.21e+001  1.32e+002 
 1.08e+002 -6.08e+001  1.33e+002 
 1.83e+002 -5.47e+001  1.41e+002 
 1.94e+002  4.01e+001  1.38e+002 
 1.16e+002  7.06e+001  1.37e+002 
 5.88e+001  7.85e+001  1.32e+002 
 1.02e+001  8.27e+001  1.31e+002 
-4.06e+001  7.92e+001  1.31e+002 
-9.11e+001  7.84e+001  1.32e+002 
-1.38e+002  7.07e+001  1.39e+002 
-1.99e+002  3.78e+001  1.41e+002 
-2.31e+002 -7.70e-001  1.12e+002 
-1.32e+002 -4.35e+001  1.07e+002 
-8.73e+001 -6.98e+001  1.06e+002 
-6.52e+001 -8.20e+001  1.06e+002 
-4.18e+001 -8.55e+001  1.07e+002 
-1.69e+001 -8.74e+001  1.06e+002 
 8.22e+000 -8.98e+001  1.06e+002 
 3.76e+001 -8.68e+001  1.06e+002 
 6.21e+001 -8.19e+001  1.06e+002 
 8.82e+001 -7.24e+001  1.06e+002 
 1.08e+002 -6.71e+001  1.06e+002 
 1.41e+002 -6.09e+001  1.13e+002 
 2.24e+002 -9.38e+000  1.10e+002 
 1.55e+002  8.35e+001  1.06e+002 
 8.44e+001  8.72e+001  1.06e+002 
 3.50e+001  8.91e+001  1.06e+002 
-1.55e+001  8.76e+001  1.06e+002 
-6.51e+001  8.89e+001  1.06e+002 
-1.16e+002  8.77e+001  1.06e+002 
-1.59e+002  8.54e+001  1.10e+002 
-2.32e+002 -2.36e+000  8.78e+001 
-1.97e+002 -3.84e+001  8.81e+001 
-1.62e+002 -3.87e+001  1.13e+002 
-1.10e+002 -7.43e+001  8.19e+001 
-6.51e+001 -9.49e+001  8.20e+001 
-4.16e+001 -9.73e+001  8.28e+001 
-1.72e+001 -9.76e+001  8.22e+001 
 8.98e+000 -1.01e+002  8.14e+001 
 3.70e+001 -1.00e+002  8.14e+001 
 6.30e+001 -9.55e+001  8.08e+001 
 8.67e+001 -8.84e+001  8.13e+001 
 1.08e+002 -8.01e+001  8.22e+001 
 1.83e+002 -5.40e+001  8.65e+001 
 2.27e+002 -1.13e+001  8.58e+001 
 2.33e+002  4.91e+001  8.37e+001 
 1.22e+002  9.92e+001  8.24e+001 
 5.75e+001  9.87e+001  8.23e+001 
 1.01e+001  9.43e+001  8.25e+001 
-3.97e+001  9.52e+001  8.25e+001 
-9.06e+001  9.84e+001  8.22e+001 
-1.38e+002  9.62e+001  8.35e+001 
-2.26e+002  5.21e+001  8.66e+001 
-1.72e+002 -7.23e+000  6.00e+001 
-1.67e+002 -5.61e+001  6.08e+001 
-1.32e+002 -8.49e+001  5.74e+001 
-8.81e+001 -1.01e+002  5.73e+001 
-6.54e+001 -1.06e+002  5.78e+001 
-4.18e+001 -1.06e+002  5.91e+001 
-1.75e+001 -1.04e+002  5.73e+001 
 7.97e+000 -1.10e+002  5.73e+001 
 3.75e+001 -1.08e+002  5.73e+001 
 6.32e+001 -1.04e+002  5.76e+001 
 8.74e+001 -1.01e+002  5.73e+001 
 1.07e+002 -9.66e+001  5.73e+001 
 1.36e+002 -8.51e+001  5.92e+001 
 1.56e+002 -4.97e+001  5.93e+001 
 1.69e+002 -1.33e+001  5.87e+001 
 1.92e+002  4.15e+001  5.84e+001 
 1.66e+002  8.56e+001  5.76e+001 
 8.48e+001  1.02e+002  5.73e+001 
 3.38e+001  9.66e+001  5.73e+001 
-1.42e+001  9.79e+001  5.73e+001 
-6.45e+001  1.00e+002  5.73e+001 
-1.15e+002  9.57e+001  5.73e+001 
-1.56e+002  8.08e+001  5.88e+001 
-1.84e+002  4.02e+001  5.97e+001 
-1.59e+002 -5.85e+001  3.43e+001 
-1.11e+002 -1.07e+002  3.30e+001 
-6.54e+001 -1.16e+002  3.30e+001 
-4.23e+001 -1.14e+002  3.42e+001 
-1.84e+001 -1.10e+002  3.37e+001 
 8.16e+000 -1.15e+002  3.33e+001 
 3.66e+001 -1.18e+002  3.26e+001 
 6.25e+001 -1.14e+002  3.29e+001 
 8.68e+001 -1.11e+002  3.29e+001 
 1.07e+002 -1.06e+002  3.27e+001 
 1.32e+002 -8.32e+001  3.37e+001 
 1.48e+002 -4.99e+001  3.37e+001 
 1.83e+002  4.09e+001  3.39e+001 
 1.26e+002  9.56e+001  3.35e+001 
 5.69e+001  9.89e+001  3.29e+001 
 1.01e+001  1.01e+002  3.30e+001 
-3.94e+001  1.03e+002  3.30e+001 
-9.04e+001  9.96e+001  3.28e+001 
-1.37e+002  8.77e+001  3.34e+001 
-1.75e+002  3.58e+001  3.43e+001 
-1.63e+002 -1.45e+001  9.49e+000 
-1.32e+002 -1.03e+002  8.95e+000 
-8.82e+001 -1.18e+002  8.89e+000 
-6.55e+001 -1.23e+002  9.08e+000 
-4.19e+001 -1.20e+002  8.89e+000 
-1.94e+001 -1.18e+002  8.89e+000 
 6.59e+000 -1.17e+002  8.89e+000 
 3.69e+001 -1.24e+002  8.89e+000 
 5.00e+001 -1.25e+002 -2.83e+000 
 6.26e+001 -1.20e+002  8.89e+000 
 8.55e+001 -1.13e+002  8.89e+000 
 1.08e+002 -1.09e+002  9.15e+000 
 1.41e+002 -6.50e+001  8.89e+000 
 1.56e+002 -1.51e+001  8.89e+000 
 1.65e+002  8.54e+001  1.04e+001 
 8.44e+001  9.66e+001  8.89e+000 
 3.42e+001  1.00e+002  8.89e+000 
-1.47e+001  1.00e+002  8.89e+000 
-6.51e+001  1.03e+002  8.89e+000 
-1.14e+002  9.60e+001  8.89e+000 
-1.56e+002  7.01e+001  9.33e+000 
-1.53e+002 -6.15e+001 -1.48e+001 
-1.11e+002 -1.19e+002 -1.54e+001 
-6.55e+001 -1.30e+002 -1.53e+001 
-4.22e+001 -1.25e+002 -1.54e+001 
-1.84e+001 -1.23e+002 -1.55e+001 
 7.31e+000 -1.24e+002 -1.54e+001 
 3.61e+001 -1.27e+002 -1.55e+001 
 6.19e+001 -1.26e+002 -1.55e+001 
 8.59e+001 -1.17e+002 -1.55e+001 
 1.07e+002 -1.05e+002 -1.54e+001 
 1.29e+002 -8.13e+001 -1.53e+001 
 1.46e+002 -4.86e+001 -1.53e+001 
 1.58e+002 -1.32e+001 -1.52e+001 
 1.70e+002  4.17e+001 -1.44e+001 
 1.27e+002  9.16e+001 -1.45e+001 
 5.75e+001  9.60e+001 -1.54e+001 
 9.86e+000  1.01e+002 -1.56e+001 
-4.02e+001  1.01e+002 -1.56e+001 
-9.07e+001  9.70e+001 -1.54e+001 
-1.38e+002  8.04e+001 -1.52e+001 
-1.67e+002  3.28e+001 -1.45e+001 
-1.68e+002 -1.45e+001 -3.78e+001 
-1.32e+002 -1.07e+002 -3.94e+001 
-8.67e+001 -1.30e+002 -3.94e+001 
-6.56e+001 -1.33e+002 -3.94e+001 
-4.29e+001 -1.29e+002 -3.95e+001 
-1.76e+001 -1.27e+002 -3.95e+001 
 6.82e+000 -1.26e+002 -3.95e+001 
 3.66e+001 -1.31e+002 -3.95e+001 
 6.17e+001 -1.28e+002 -3.95e+001 
 8.58e+001 -1.20e+002 -3.95e+001 
 1.07e+002 -1.11e+002 -3.95e+001 
 1.45e+002 -6.59e+001 -3.95e+001 
 1.57e+002 -1.45e+001 -3.95e+001 
 1.58e+002  7.98e+001 -3.81e+001 
 8.54e+001  9.50e+001 -3.95e+001 
 3.45e+001  9.80e+001 -3.95e+001 
-1.57e+001  9.99e+001 -3.95e+001 
-6.59e+001  9.82e+001 -3.95e+001 
-1.15e+002  9.20e+001 -3.95e+001 
-1.58e+002  6.18e+001 -3.92e+001 
-1.59e+002 -7.45e+001 -6.34e+001 
-1.12e+002 -1.28e+002 -6.38e+001 
-6.54e+001 -1.34e+002 -6.36e+001 
-4.25e+001 -1.35e+002 -6.38e+001 
-1.81e+001 -1.34e+002 -6.38e+001 
 8.21e+000 -1.31e+002 -6.38e+001 
 3.60e+001 -1.33e+002 -6.37e+001 
 6.14e+001 -1.32e+002 -6.37e+001 
 8.60e+001 -1.24e+002 -6.37e+001 
 1.07e+002 -1.10e+002 -6.38e+001 
 1.32e+002 -9.26e+001 -6.38e+001 
 1.51e+002 -5.47e+001 -6.38e+001 
 1.57e+002 -1.52e+001 -6.38e+001 
 1.59e+002  4.42e+001 -6.34e+001 
 1.21e+002  9.11e+001 -6.34e+001 
 5.88e+001  9.31e+001 -6.38e+001 
 9.58e+000  9.54e+001 -6.44e+001 
-4.06e+001  9.58e+001 -6.44e+001 
-9.15e+001  9.39e+001 -6.37e+001 
-1.39e+002  7.90e+001 -6.36e+001 
-1.66e+002  3.42e+001 -6.31e+001 
-1.75e+002 -1.47e+001 -8.80e+001 
-1.34e+002 -1.20e+002 -8.80e+001 
-8.81e+001 -1.35e+002 -8.80e+001 
-6.56e+001 -1.34e+002 -8.77e+001 
-4.22e+001 -1.36e+002 -8.80e+001 
-1.78e+001 -1.39e+002 -8.80e+001 
 7.22e+000 -1.36e+002 -8.80e+001 
 3.80e+001 -1.36e+002 -8.80e+001 
 6.15e+001 -1.34e+002 -8.80e+001 
 8.62e+001 -1.25e+002 -8.80e+001 
 1.08e+002 -1.11e+002 -8.80e+001 
 1.45e+002 -6.60e+001 -8.80e+001 
 1.56e+002 -1.55e+001 -8.80e+001 
 1.46e+002  7.18e+001 -8.80e+001 
 8.54e+001  8.87e+001 -8.80e+001 
 3.43e+001  9.34e+001 -8.80e+001 
-1.54e+001  9.07e+001 -8.80e+001 
-6.56e+001  9.48e+001 -8.80e+001 
-1.17e+002  8.77e+001 -8.79e+001 
-1.59e+002  5.44e+001 -8.74e+001 
-1.61e+002 -6.87e+001 -1.11e+002 
-1.12e+002 -1.25e+002 -1.12e+002 
-6.50e+001 -1.31e+002 -1.12e+002 
-4.21e+001 -1.34e+002 -1.12e+002 
-1.77e+001 -1.36e+002 -1.12e+002 
 8.50e+000 -1.36e+002 -1.12e+002 
 3.64e+001 -1.37e+002 -1.12e+002 
 6.20e+001 -1.33e+002 -1.12e+002 
 8.69e+001 -1.23e+002 -1.12e+002 
 1.10e+002 -1.05e+002 -1.12e+002 
 1.41e+002 -6.35e+001 -1.12e+002 
 1.53e+002 -1.53e+001 -1.11e+002 
 1.49e+002  1.76e+001 -1.11e+002 
 1.10e+002  8.34e+001 -1.12e+002 
 5.93e+001  8.43e+001 -1.12e+002 
 9.33e+000  8.23e+001 -1.13e+002 
-4.08e+001  8.40e+001 -1.12e+002 
-9.20e+001  8.94e+001 -1.12e+002 
-1.39e+002  7.49e+001 -1.12e+002 
-1.70e+002  1.38e+001 -1.11e+002 
-1.71e+002 -1.45e+001 -1.34e+002 
-1.32e+002 -1.07e+002 -1.36e+002 
-8.67e+001 -1.20e+002 -1.35e+002 
-6.45e+001 -1.24e+002 -1.35e+002 
-4.18e+001 -1.26e+002 -1.36e+002 
-1.81e+001 -1.33e+002 -1.36e+002 
 8.22e+000 -1.29e+002 -1.36e+002 
 3.66e+001 -1.32e+002 -1.36e+002 
 6.16e+001 -1.28e+002 -1.36e+002 
 8.63e+001 -1.20e+002 -1.36e+002 
 1.07e+002 -1.09e+002 -1.36e+002 
 1.41e+002 -6.35e+001 -1.36e+002 
 1.52e+002 -1.45e+001 -1.34e+002 
 1.21e+002  5.27e+001 -1.35e+002 
 8.32e+001  7.49e+001 -1.36e+002 
 3.40e+001  7.47e+001 -1.36e+002 
-1.60e+001  7.21e+001 -1.36e+002 
-6.67e+001  8.00e+001 -1.35e+002 
-1.16e+002  8.15e+001 -1.36e+002 
-1.58e+002  3.68e+001 -1.35e+002 
-1.57e+002 -6.01e+001 -1.59e+002 
-1.12e+002 -1.09e+002 -1.60e+002 
-6.43e+001 -1.19e+002 -1.60e+002 
-1.80e+001 -1.25e+002 -1.60e+002 
 3.59e+001 -1.29e+002 -1.61e+002 
 8.64e+001 -1.17e+002 -1.61e+002 
 1.36e+002 -5.92e+001 -1.60e+002 
 1.36e+002  1.95e+001 -1.59e+002 
 9.90e+001  6.27e+001 -1.59e+002 
 5.77e+001  7.25e+001 -1.60e+002 
 8.42e+000  7.08e+001 -1.61e+002 
-4.15e+001  7.46e+001 -1.60e+002 
-9.20e+001  8.11e+001 -1.60e+002 
-1.36e+002  5.83e+001 -1.60e+002 
-1.65e+002  1.14e+001 -1.59e+002 
-1.66e+002 -1.36e+001 -1.83e+002 
-1.33e+002 -9.87e+001 -1.84e+002 
-8.77e+001 -1.16e+002 -1.84e+002 
-4.16e+001 -1.20e+002 -1.84e+002 
 8.27e+000 -1.27e+002 -1.85e+002 
 6.07e+001 -1.29e+002 -1.85e+002 
 1.08e+002 -1.06e+002 -1.85e+002 
 1.40e+002 -9.59e+000 -1.83e+002 
 1.15e+002  4.17e+001 -1.83e+002 
 7.97e+001  6.77e+001 -1.84e+002 
 3.22e+001  6.76e+001 -1.85e+002 
-1.68e+001  6.52e+001 -1.85e+002 
-6.68e+001  7.54e+001 -1.84e+002 
-1.16e+002  7.26e+001 -1.84e+002 
-1.51e+002  3.41e+001 -1.84e+002 
-1.64e+002 -5.84e+001 -2.08e+002 
-1.13e+002 -1.05e+002 -2.08e+002 
-6.45e+001 -1.13e+002 -2.08e+002 
-1.84e+001 -1.15e+002 -2.09e+002 
 3.43e+001 -1.30e+002 -2.09e+002 
 8.55e+001 -1.20e+002 -2.09e+002 
 1.37e+002 -5.96e+001 -2.08e+002 
 1.32e+002  1.69e+001 -2.08e+002 
 9.95e+001  5.79e+001 -2.08e+002 
 5.47e+001  6.65e+001 -2.08e+002 
 7.02e+000  5.86e+001 -2.10e+002 
-4.18e+001  6.50e+001 -2.08e+002 
-9.20e+001  7.81e+001 -2.08e+002 
-1.38e+002  5.70e+001 -2.08e+002 
-1.65e+002  1.15e+001 -2.08e+002 
